0.08238644897937775 0.7706547975540161 2.4338698387145996 128 103 98
0.05471881851553917 0.7453718781471252 2.4240939617156982 116 80 60
0.08800215274095535 0.7700332999229431 2.4316952228546143 133 109 107
0.05827885866165161 0.7302394509315491 2.4442217350006104 114 82 73
0.05572780966758728 0.7506084442138672 2.429882049560547 142 98 82
0.057092100381851196 0.7515446543693542 2.4193501472473145 97 64 45
0.05991629883646965 0.7549169063568115 2.43097186088562 192 149 131
0.057906050235033035 0.7445512413978577 2.413229465484619 129 84 54
0.0792447179555893 0.7675164341926575 2.423133134841919 86 59 42
0.055285099893808365 0.7277089953422546 2.4301953315734863 145 110 91
0.06611809879541397 0.7616477012634277 2.417238712310791 102 69 49
0.05463431030511856 0.7406590580940247 2.42179274559021 120 85 61
0.0586777999997139 0.753864049911499 2.4232137203216553 114 73 54
0.06241855025291443 0.7618324160575867 2.418262481689453 118 83 62
0.06263011693954468 0.7582077383995056 2.4263863563537598 166 122 103
0.060941848903894424 0.7518622279167175 2.4093713760375977 109 75 44
0.05275397002696991 0.7364664077758789 2.425017833709717 135 103 78
0.07430599629878998 0.7654280066490173 2.434417486190796 120 92 72
0.07994794100522995 0.7665292620658875 2.4292287826538086 126 94 79
0.05600887909531593 0.7372896671295166 2.442659378051758 121 85 77
0.0664442777633667 0.7665383815765381 2.4169557094573975 130 96 72
0.06076319143176079 0.7617713212966919 2.4163448810577393 136 104 79
0.06956084817647934 0.7639128565788269 2.428593397140503 156 117 96
0.07728143781423569 0.7648484110832214 2.412806510925293 82 58 38
0.05305156111717224 0.7402806878089905 2.4385745525360107 114 81 67
0.05336048826575279 0.742485523223877 2.4134840965270996 190 143 108
0.07412424683570862 0.7614951133728027 2.4144022464752197 93 66 45
0.05956977978348732 0.7548706531524658 2.4168479442596436 98 65 44
0.06207114830613136 0.7571821808815002 2.419534921646118 107 69 48
0.05618942156434059 0.7288973927497864 2.4455013275146484 145 112 99
0.05653633922338486 0.7352977395057678 2.4427053928375244 126 91 82
0.08761785179376602 0.7740535140037537 2.4330062866210938 98 76 73
0.06528180837631226 0.7604808211326599 2.4149582386016846 91 66 45
0.05598913133144379 0.7278144955635071 2.435276746749878 127 87 69
0.08285774290561676 0.7661080360412598 2.428095579147339 91 65 50
0.0713505893945694 0.7610054016113281 2.414262056350708 86 59 40
0.05586354061961174 0.7384650707244873 2.410421133041382 197 160 126
0.08616539090871811 0.7692952156066895 2.429388999938965 131 104 97
0.051051851361989975 0.7320912480354309 2.418306589126587 170 125 99
0.060252100229263306 0.7569667100906372 2.4213953018188477 121 79 61
0.06067296117544174 0.7534618377685547 2.4119222164154053 100 69 46
0.07359856367111206 0.7655446529388428 2.4293317794799805 142 108 89
0.05242038890719414 0.7343109846115112 2.428928852081299 154 120 101
0.06289366632699966 0.7638307809829712 2.4177372455596924 102 73 54
0.05785499885678291 0.7523492574691772 2.426110029220581 120 77 62
0.06487905979156494 0.7543684244155884 2.409395933151245 108 78 50
0.062110308557748795 0.7563827037811279 2.412391424179077 88 61 41
0.05438967049121857 0.7309767603874207 2.427335262298584 164 129 108
0.058814648538827896 0.7501214146614075 2.4131433963775635 103 76 45
0.05400490015745163 0.7367470860481262 2.4271230697631836 144 110 92
0.053579580038785934 0.7355847358703613 2.4128193855285645 220 188 156
0.07303322106599808 0.7672654986381531 2.414773941040039 96 69 48
0.0676918476819992 0.7629891037940979 2.4282784461975098 171 134 117
0.05558137968182564 0.7437962889671326 2.4104175567626953 180 141 108
0.06593622267246246 0.7627208232879639 2.4153265953063965 94 69 49
0.061795830726623535 0.7580168843269348 2.4287612438201904 191 148 130
0.06056024879217148 0.7584919929504395 2.4194836616516113 105 68 48
0.08112931996583939 0.7685275077819824 2.428119659423828 94 66 56
0.05680789053440094 0.7479231953620911 2.416130542755127 132 91 59
0.05425148829817772 0.7349637150764465 2.414731740951538 176 137 102
0.07987897098064423 0.7704210877418518 2.4353206157684326 111 86 82
0.08220657706260681 0.7682387232780457 2.4236700534820557 94 66 52
0.07481220364570618 0.7632634043693542 2.4132883548736572 83 61 40
0.05303829908370972 0.7395469546318054 2.42307710647583 123 88 66
0.06467107683420181 0.7656198143959045 2.416841506958008 133 99 73
0.061251960694789886 0.718277633190155 2.444096803665161 190 151 127
0.05781774967908859 0.7172126173973083 2.4255616664886475 136 104 81
0.06445399671792984 0.7119863629341125 2.4259753227233887 129 102 73
0.05643051862716675 0.722435712814331 2.420668363571167 134 103 75
0.05543508008122444 0.724827766418457 2.4186179637908936 123 82 56
0.0586051382124424 0.7225606441497803 2.449439287185669 137 112 92
0.06177084147930145 0.7146723866462708 2.429158926010132 128 103 72
0.06509704887866974 0.7154226899147034 2.442826271057129 138 101 79
0.05889955163002014 0.7206371426582336 2.4175639152526855 118 91 63
0.05687902122735977 0.7239206433296204 2.416473150253296 116 91 57
0.06487440317869186 0.7106447219848633 2.437143325805664 105 88 69
0.05694612115621567 0.7233902215957642 2.435673475265503 136 96 77
0.05605810135602951 0.7239226698875427 2.429184913635254 128 90 72
0.05642654001712799 0.7253619432449341 2.446465253829956 227 195 181
0.06702940911054611 0.7083171010017395 2.4297678470611572 108 86 64
0.07015403360128403 0.7086419463157654 2.4327011108398438 138 115 97
0.05843495950102806 0.7208150625228882 2.4155638217926025 115 91 58
0.05757252126932144 0.7218498587608337 2.4240801334381104 125 89 66
0.05434960126876831 0.726759135723114 2.4277102947235107 135 95 77
0.0629977211356163 0.7175900340080261 2.4415557384490967 154 113 92
0.056328050792217255 0.7227472066879272 2.4374637603759766 133 89 73
0.06668216735124588 0.7111026048660278 2.424440860748291 131 101 73
0.05644626170396805 0.7223953604698181 2.4423441886901855 198 158 132
0.06669777631759644 0.7111899256706238 2.429112434387207 118 92 65
0.061574891209602356 0.718797504901886 2.447871446609497 177 136 124
0.059555381536483765 0.7265573143959045 2.4483885765075684 190 162 135
0.05602842941880226 0.7268873453140259 2.4451377391815186 177 141 125
0.05577583983540535 0.7253293991088867 2.421398878097534 115 81 58
0.05762350931763649 0.7225691676139832 2.4149205684661865 113 89 55
0.06334833055734634 0.7141692042350769 2.42472243309021 95 67 48
0.05820424109697342 0.7175520658493042 2.431527853012085 122 96 71
0.06739898771047592 0.7136918902397156 2.443495988845825 121 93 68
0.06399351358413696 0.7135756015777588 2.4281253814697266 128 99 72
0.06397335231304169 0.7142401933670044 2.4399445056915283 129 102 74
0.06256456673145294 0.7168609499931335 2.4385786056518555 123 88 67
0.05673649162054062 0.7200144529342651 2.4336435794830322 120 89 68
0.06258299201726913 0.7145518064498901 2.433948278427124 136 111 86
0.05597257986664772 0.7267621755599976 2.4146151542663574 126 95 64
0.06102646142244339 0.7154830098152161 2.425551414489746 135 100 74
0.061620499938726425 0.7142977714538574 2.421109676361084 128 98 69
0.05881597846746445 0.7213545441627502 2.444195508956909 196 148 124
0.057468779385089874 0.7183535099029541 2.4274234771728516 135 102 80
0.06732016801834106 0.7121626734733582 2.421151638031006 131 102 73
0.06104180961847305 0.7162388563156128 2.418379068374634 130 102 72
0.05738705024123192 0.7201746702194214 2.4417059421539307 222 191 168
0.06112413853406906 0.7170050740242004 2.4355673789978027 119 90 70
0.06482111662626266 0.7136699557304382 2.4205820560455322 130 101 71
0.057624731212854385 0.7184004187583923 2.429811716079712 134 103 74
0.056443531066179276 0.7238379120826721 2.4243216514587402 131 81 58
0.05731669068336487 0.7207995653152466 2.4395058155059814 162 129 110
0.056193530559539795 0.7258434891700745 2.436708450317383 163 125 107
0.06520283967256546 0.711377739906311 2.4404168128967285 114 93 63
0.05890003964304924 0.7188870310783386 2.4190874099731445 119 89 64
0.06367775052785873 0.7114019989967346 2.4310429096221924 133 107 85
0.07279332727193832 0.7076350450515747 2.436147451400757 104 82 62
0.06006820127367973 0.7209778428077698 2.446810007095337 166 112 88
0.05597146973013878 0.7232398390769958 2.4403316974639893 234 197 174
0.056182630360126495 0.7248765230178833 2.4325501918792725 125 89 71
0.06453785300254822 0.7110135555267334 2.43335223197937 109 85 63
0.05719470977783203 0.7225829362869263 2.4279375076293945 123 83 66
0.06471583247184753 0.7163779735565186 2.4466795921325684 136 96 76
0.05929300934076309 0.7159392833709717 2.4275999069213867 122 95 68
0.05471815913915634 0.7276576161384583 2.4398303031921387 252 229 211
0.05518227815628052 0.7247645854949951 2.4273641109466553 131 92 73
0.0673532709479332 0.7093889117240906 2.427367687225342 131 104 78
0.06371817737817764 0.7144103050231934 2.437351703643799 125 98 75
0.054153408855199814 0.7270874977111816 2.421635627746582 149 96 78
0.05762670934200287 0.7238417267799377 2.4474096298217773 165 122 106
0.056733518838882446 0.7225386500358582 2.4259414672851562 136 98 80
0.05718788877129555 0.7274925112724304 2.4408719539642334 226 207 194
0.05685697868466377 0.723068356513977 2.4184770584106445 122 90 63
0.06822005659341812 0.7090969085693359 2.434845447540283 104 78 61
0.059474289417266846 0.7171570658683777 2.4331486225128174 112 87 60
0.06527833640575409 0.7121752500534058 2.435432195663452 120 96 71
0.05943254008889198 0.7192714214324951 2.4392735958099365 148 98 69
0.06524588912725449 0.708605945110321 2.4348013401031494 98 77 60
0.05320413038134575 0.7240558862686157 2.438676357269287 189 158 141
0.05598108842968941 0.7203989624977112 2.4310379028320312 116 84 63
0.06826884299516678 0.7099218368530273 2.43135142326355 128 103 81
0.056195199489593506 0.723976731300354 2.443901538848877 201 161 141
0.06413541734218597 0.7122092247009277 2.438194990158081 127 107 80
0.05768487975001335 0.7229073643684387 2.4449422359466553 185 138 120
0.05980094149708748 0.7247628569602966 2.4473323822021484 233 202 189
0.05331633985042572 0.7252410650253296 2.4425342082977295 232 197 177
0.0621333010494709 0.7131835222244263 2.43247389793396 107 83 58
0.06030284985899925 0.7182164192199707 2.4415953159332275 155 99 68
0.054392971098423004 0.7268301248550415 2.4195568561553955 157 92 77
0.06666600704193115 0.7092540860176086 2.4326274394989014 95 76 61
0.057146038860082626 0.7256824374198914 2.4392142295837402 245 228 217
0.06137673184275627 0.7136846780776978 2.424198865890503 133 103 74
0.058118049055337906 0.7191712260246277 2.434976577758789 127 94 72
0.0642663836479187 0.7139280438423157 2.434884786605835 114 89 67
0.06979966908693314 0.7090290188789368 2.429903745651245 135 109 84
0.05711862072348595 0.7196111083030701 2.4236159324645996 111 80 54
0.05764757841825485 0.7203453779220581 2.4267935752868652 130 95 72
0.05776343122124672 0.7202267646789551 2.420335054397583 128 99 70
0.05553627014160156 0.7255868315696716 2.4234776496887207 145 93 69
0.05828874185681343 0.7267301082611084 2.4467718601226807 198 162 144
0.0629347562789917 0.7154796123504639 2.435727119445801 124 97 74
0.05474035069346428 0.7239169478416443 2.4418880939483643 203 159 134
0.06456117331981659 0.7156736254692078 2.444800615310669 126 79 57
0.06435678154230118 0.7131794095039368 2.4304258823394775 128 104 74
0.06846772879362106 0.7077377438545227 2.433284044265747 109 86 67
0.06317619979381561 0.7167390584945679 2.4434638023376465 146 107 92
0.0597001314163208 0.7183292508125305 2.436213493347168 121 86 65
0.06575194746255875 0.7114474177360535 2.4317753314971924 98 74 49
0.060340579599142075 0.7182021141052246 2.416938543319702 129 106 70
0.06544861197471619 0.7129669189453125 2.4419829845428467 117 94 64
0.05614018067717552 0.7253574132919312 2.4345290660858154 136 97 79
0.0575072206556797 0.7203857898712158 2.4290771484375 129 96 73
0.06403513252735138 0.7164672613143921 2.440103530883789 111 82 64
0.05590834841132164 0.7257223129272461 2.4304418563842773 116 79 64
0.05524561181664467 0.7256656885147095 2.4398765563964844 245 229 217
0.06056573987007141 0.7181538939476013 2.4380218982696533 128 83 61
0.0631348118185997 0.7127657532691956 2.4211649894714355 127 100 69
0.062124378979206085 0.7176578640937805 2.445913553237915 178 140 120
0.07970183342695236 0.7665625214576721 2.443143367767334 96 70 70
0.09098892658948898 0.7655723690986633 2.452312469482422 87 80 45
0.08414106070995331 0.7664467692375183 2.445213794708252 130 110 116
0.08901991695165634 0.7637729048728943 2.4528074264526367 112 102 94
0.08645790070295334 0.7511411309242249 2.4570698738098145 112 105 99
0.09038536250591278 0.7686445713043213 2.43872332572937 132 115 115
0.08783087879419327 0.7531498074531555 2.4563615322113037 108 95 96
0.08378492295742035 0.7692413926124573 2.4403834342956543 129 107 107
0.0830397680401802 0.76490718126297 2.447011947631836 129 111 116
0.08673834800720215 0.7682226896286011 2.4429409503936768 132 110 113
0.08414801955223083 0.7614094614982605 2.4492833614349365 134 114 122
0.08460430800914764 0.7709783911705017 2.437483072280884 130 111 107
0.08774258941411972 0.7663623690605164 2.4496545791625977 137 123 119
0.0866239070892334 0.7671430706977844 2.4447484016418457 136 119 124
0.08081284165382385 0.7691856026649475 2.4398341178894043 111 86 84
0.09338544309139252 0.7559868693351746 2.4489521980285645 128 105 102
0.08571778982877731 0.7607988119125366 2.4510130882263184 118 98 105
0.08489224314689636 0.7651917934417725 2.4488296508789062 135 121 129
0.08126948773860931 0.7655165791511536 2.445378065109253 108 86 89
0.08622659742832184 0.7577324509620667 2.4530670642852783 104 86 90
0.08862856775522232 0.7689059972763062 2.4422662258148193 131 112 114
0.08128892630338669 0.7676836848258972 2.4423558712005615 96 70 71
0.08822928369045258 0.7705479860305786 2.4352691173553467 129 105 104
0.0798528790473938 0.7641054391860962 2.4423959255218506 133 104 106
0.08645989745855331 0.7641458511352539 2.451064348220825 101 83 85
0.08654367178678513 0.7712773084640503 2.439997911453247 131 117 116
0.08971758931875229 0.7666247487068176 2.4501824378967285 111 98 81
0.08332032710313797 0.7694193124771118 2.4383833408355713 130 107 104
0.08848351240158081 0.7698260545730591 2.4440364837646484 93 72 72
0.08541078120470047 0.7632089853286743 2.4493725299835205 129 112 118
0.09228944033384323 0.7677706480026245 2.449909210205078 132 120 88
0.08912421762943268 0.7690303921699524 2.436605453491211 132 114 113
0.08336315304040909 0.7677291035652161 2.4430882930755615 133 112 116
0.08892606943845749 0.7687958478927612 2.448040246963501 165 157 129
0.08342897146940231 0.7633909583091736 2.448836326599121 135 118 125
0.09042590856552124 0.7711120843887329 2.4398717880249023 127 117 114
0.09087278693914413 0.7704115509986877 2.4377052783966064 134 116 121
0.08116315305233002 0.7633351683616638 2.4477031230926514 97 72 75
0.08806770294904709 0.7708288431167603 2.438542127609253 131 113 111
0.07806898653507233 0.7656035423278809 2.4407455921173096 131 105 104
0.07862549275159836 0.7674031257629395 2.441418409347534 93 69 64
0.08374066650867462 0.7601011395454407 2.4509904384613037 108 85 90
0.08536017686128616 0.7688437700271606 2.4416122436523438 124 101 101
0.08965565264225006 0.7689906358718872 2.4459619522094727 94 73 75
0.08529617637395859 0.7667222619056702 2.4471185207366943 138 122 131
0.06603846698999405 0.7233529090881348 2.4500551223754883 178 150 132
0.06204294040799141 0.7263739705085754 2.4484364986419678 133 100 82
0.0702928975224495 0.7227823734283447 2.451732635498047 126 106 99
0.071583092212677 0.7261880040168762 2.454477310180664 101 92 87
0.07281570881605148 0.7282370924949646 2.456052541732788 46 34 26
0.062222979962825775 0.7197318077087402 2.4497549533843994 112 93 87
0.06146780028939247 0.7234999537467957 2.4497716426849365 136 94 82
0.07185246050357819 0.7228382229804993 2.4534499645233154 110 95 101
0.06471945345401764 0.7195393443107605 2.449306011199951 121 97 85
0.06334781646728516 0.7248498201370239 2.449084520339966 142 115 94
0.06220889091491699 0.7223706841468811 2.4482147693634033 175 139 124
0.06435243785381317 0.7173149585723877 2.4495391845703125 105 91 80
0.06637539714574814 0.7173095345497131 2.447587013244629 162 127 108
0.0645684003829956 0.7219964861869812 2.4500536918640137 184 155 139
-0.40718209743499756 0.5655061602592468 2.4927868843078613 153 98 60
-0.4074247479438782 0.5688285231590271 2.492323875427246 77 36 16
-0.4039364159107208 0.5590305328369141 2.5005204677581787 170 136 98
-0.408983051776886 0.5601387023925781 2.4925549030303955 238 201 181
-0.4043404459953308 0.5535756349563599 2.4944489002227783 229 202 184
-0.4069989323616028 0.5517469048500061 2.505868911743164 147 145 104
-0.4049704670906067 0.5519545674324036 2.503415822982788 176 163 121
-0.4014083445072174 0.5533381700515747 2.5031559467315674 167 154 137
-0.40615779161453247 0.5594698786735535 2.502063274383545 147 127 100
-0.4103490114212036 0.5610692501068115 2.495893716812134 113 89 26
-0.4046975374221802 0.5558183789253235 2.495793342590332 196 192 166
-0.4081718921661377 0.5635182857513428 2.4942970275878906 102 50 20
-0.407364159822464 0.559143602848053 2.497474193572998 115 107 78
-0.4063076376914978 0.5573451519012451 2.495537519454956 238 233 215
-0.4007606506347656 0.5554817914962769 2.4983558654785156 190 164 129
-0.4036118984222412 0.5537592768669128 2.5037052631378174 210 191 163
-0.40934595465660095 0.5593255758285522 2.4969379901885986 165 159 137
-0.40839216113090515 0.5705357789993286 2.4892923831939697 243 217 198
-0.4089914858341217 0.5583977103233337 2.494575262069702 218 192 172
-0.4106851816177368 0.5602287650108337 2.498786687850952 100 96 66
-0.4086419343948364 0.5714597105979919 2.491358757019043 122 93 69
-0.404742568731308 0.5576140880584717 2.4967539310455322 130 113 80
-0.4069960117340088 0.5532748699188232 2.50434947013855 167 155 125
-0.4099065065383911 0.5640912055969238 2.490676164627075 235 185 167
-0.4045981168746948 0.5589849948883057 2.4986202716827393 126 104 74
-0.4081396460533142 0.5637040138244629 2.4923057556152344 145 70 38
-0.40812453627586365 0.5535127520561218 2.5061144828796387 224 223 196
-0.40242210030555725 0.557498574256897 2.5005757808685303 169 146 122
-0.4073333144187927 0.57255619764328 2.4894731044769287 234 200 178
-0.40237388014793396 0.5520970225334167 2.496997117996216 178 161 145
-0.4098235070705414 0.5660778284072876 2.4898457527160645 234 195 176
-0.406538724899292 0.5673200488090515 2.494157075881958 54 34 15
-0.4081282317638397 0.5749495029449463 2.4873268604278564 232 200 185
-0.4025782644748688 0.5540680289268494 2.495565176010132 191 176 153
-0.40623947978019714 0.5568258166313171 2.5034029483795166 120 96 70
-0.4054526686668396 0.5555343627929688 2.5050315856933594 204 187 157
-0.40800604224205017 0.5600558519363403 2.4992356300354004 122 105 76
-0.4088604748249054 0.5680930614471436 2.489825963973999 231 191 170
-0.4058593511581421 0.5719403028488159 2.491002321243286 162 105 75
-0.40905898809432983 0.557039201259613 2.505237579345703 118 90 72
-0.4060531556606293 0.5555415749549866 2.4939844608306885 239 210 197
-0.4025251269340515 0.5511704683303833 2.495122194290161 190 156 128
-0.4099697172641754 0.5630623698234558 2.4951679706573486 71 46 21
-0.40295106172561646 0.5567642450332642 2.4973981380462646 155 117 77
-0.3996067941188812 0.5564147233963013 2.499751329421997 104 50 24
-0.49239253997802734 0.7469439506530762 2.6478042602539062 160 165 69
-0.48976150155067444 0.7516317367553711 2.6466715335845947 238 221 189
-0.4920310378074646 0.7489553093910217 2.6480720043182373 198 196 159
-0.4935361444950104 0.7453444004058838 2.646421194076538 156 163 77
-0.4704577922821045 0.7536191344261169 2.6778035163879395 134 93 87
-0.47175657749176025 0.7455019950866699 2.6966214179992676 123 100 75
-0.4748038053512573 0.7550550103187561 2.674915313720703 230 170 161
-0.48564159870147705 0.7586227059364319 2.660536766052246 241 188 174
-0.48121747374534607 0.7566695213317871 2.659458875656128 241 196 186
-0.4903870224952698 0.7622413635253906 2.6558117866516113 239 187 174
-0.4756658971309662 0.7544673681259155 2.6679508686065674 242 213 200
-0.49429744482040405 0.767684280872345 2.652857542037964 242 195 184
-0.4883878529071808 0.7472973465919495 2.651548385620117 234 229 197
-0.48615023493766785 0.752630889415741 2.649601459503174 239 224 194
-0.47927752137184143 0.7595558166503906 2.6934444904327393 242 201 192
-0.4757007658481598 0.743154764175415 2.6574199199676514 115 118 63
-0.4696653485298157 0.7564651370048523 2.686713933944702 215 178 165
-0.4663500487804413 0.7517833113670349 2.6832799911499023 113 65 29
-0.47124382853507996 0.7435615658760071 2.663656711578369 110 115 94
-0.48039793968200684 0.753813624382019 2.6606197357177734 243 206 178
-0.4821961224079132 0.7545669674873352 2.6548070907592773 224 158 100
-0.4917457401752472 0.7650295495986938 2.651460886001587 240 188 173
-0.48751193284988403 0.7624084949493408 2.650491237640381 240 191 176
-0.46927204728126526 0.751895010471344 2.679745674133301 107 65 35
-0.4809117615222931 0.7263942360877991 2.668968677520752 159 151 84
-0.4806927442550659 0.7565333247184753 2.663646697998047 239 184 170
-0.4726989269256592 0.7490485906600952 2.684906482696533 229 195 158
-0.46832403540611267 0.7559971809387207 2.6843602657318115 230 182 172
-0.4755224883556366 0.7558271884918213 2.681152105331421 230 177 165
-0.4766089618206024 0.7443518042564392 2.662750720977783 131 114 91
-0.4718170166015625 0.7457156777381897 2.6604251861572266 241 236 199
-0.48998957872390747 0.726507842540741 2.670593500137329 149 131 60
-0.4705043435096741 0.7406600713729858 2.686293125152588 175 168 149
-0.46554845571517944 0.7535385489463806 2.681373119354248 98 73 66
-0.4710442125797272 0.7434240579605103 2.6919000148773193 202 196 179
-0.4740211069583893 0.7568174004554749 2.6853368282318115 237 197 182
-0.4751244783401489 0.750377357006073 2.674697160720825 165 106 67
-0.4784635901451111 0.7521493434906006 2.665159225463867 221 159 107
-0.48276522755622864 0.7581324577331543 2.6557254791259766 238 179 168
-0.47666966915130615 0.7545775771141052 2.6627604961395264 221 168 148
-0.4958634376525879 0.7668634653091431 2.657815933227539 240 191 177
-0.4728701710700989 0.7517572045326233 2.6753089427948 178 145 116
-0.47622668743133545 0.7438207268714905 2.669727087020874 153 135 117
-0.481599897146225 0.757741391658783 2.6576428413391113 235 177 166
-0.4852965176105499 0.759454071521759 2.657147169113159 238 180 165
-0.46936318278312683 0.7385683655738831 2.6685547828674316 134 129 118
-0.47238004207611084 0.7561337351799011 2.683091878890991 226 168 158
-0.4719093143939972 0.7498258352279663 2.690176010131836 203 209 217
-0.4695985019207001 0.740109384059906 2.6917879581451416 220 216 240
-0.46827590465545654 0.7511364817619324 2.6859419345855713 133 86 53
-0.4822881519794464 0.7246077656745911 2.669672966003418 120 125 120
-0.49027225375175476 0.7496699094772339 2.649184226989746 240 235 210
-0.4734768867492676 0.7423544526100159 2.6842200756073 217 202 158
-0.46707168221473694 0.7550796270370483 2.681814432144165 225 181 172
-0.469923198223114 0.7375317811965942 2.6730377674102783 176 164 153
-0.4756019711494446 0.7486122846603394 2.6638834476470947 244 241 225
-0.4725241959095001 0.7455770373344421 2.6893482208251953 141 118 91
-0.4736822247505188 0.7558022141456604 2.67830228805542 234 169 160
-0.47903963923454285 0.7442581653594971 2.6597259044647217 120 97 58
-0.470584899187088 0.7374862432479858 2.671137809753418 159 149 126
-0.48740071058273315 0.7265427708625793 2.6703410148620605 173 173 156
-0.47595977783203125 0.7626172304153442 2.6999106407165527 190 165 150
-0.4782152473926544 0.7524235844612122 2.667743682861328 212 164 128
-0.4709574580192566 0.7439792156219482 2.6977574825286865 234 222 204
-0.47599339485168457 0.7502341270446777 2.667724370956421 250 230 209
-0.4820273816585541 0.724109947681427 2.666604518890381 177 183 186
-0.48804181814193726 0.7446284890174866 2.6512057781219482 205 205 126
-0.4744814932346344 0.7409588098526001 2.6578798294067383 222 229 217
-0.4847491383552551 0.741385281085968 2.653412342071533 200 201 125
-0.49298200011253357 0.7642842531204224 2.6602017879486084 243 195 181
-0.49536558985710144 0.7713475227355957 2.659432888031006 239 198 179
-0.49668851494789124 0.7695063352584839 2.657155990600586 240 187 174
-0.4839012324810028 0.7571812868118286 2.653336524963379 150 83 67
-0.47137150168418884 0.7590683698654175 2.696578025817871 249 227 215
-0.4747024476528168 0.7467558979988098 2.670893669128418 234 229 203
-0.4751092493534088 0.7516739964485168 2.672685146331787 154 125 128
-0.47668325901031494 0.7603446245193481 2.6978514194488525 192 165 134
-0.48813000321388245 0.7617654800415039 2.6522815227508545 241 186 172
-0.47915101051330566 0.7566074132919312 2.6663575172424316 239 186 173
-0.4756776690483093 0.732402503490448 2.6769063472747803 149 150 135
-0.47540852427482605 0.7541916966438293 2.6648783683776855 196 147 127
-0.48287636041641235 0.7573714256286621 2.6626973152160645 240 192 180
-0.49653875827789307 0.7677066922187805 2.6558992862701416 245 211 194
-0.4719465672969818 0.7476769685745239 2.6941919326782227 132 106 73
-0.49638375639915466 0.7712538242340088 2.655240297317505 239 187 176
-0.4861723482608795 0.7602959871292114 2.6553263664245605 239 179 165
-0.491216778755188 0.7657638192176819 2.6546385288238525 240 198 186
-0.48404255509376526 0.7607219219207764 2.6525728702545166 243 199 186
-0.4767579734325409 0.755761444568634 2.6667144298553467 239 186 173
-0.47475481033325195 0.7596765756607056 2.6962080001831055 239 218 200
-0.4875616729259491 0.7245326638221741 2.6699774265289307 127 122 101
-0.4742579460144043 0.7387252449989319 2.6809916496276855 219 231 238
-0.47123533487319946 0.7416635751724243 2.6930224895477295 93 77 45
-0.47088587284088135 0.750801146030426 2.682023525238037 168 113 68
-0.4820265471935272 0.7537251710891724 2.6572117805480957 238 208 175
-0.4687003195285797 0.7549911737442017 2.6784064769744873 222 172 159
-0.48059558868408203 0.7473637461662292 2.660635232925415 221 222 207
-0.47770705819129944 0.7557002902030945 2.664212703704834 239 189 176
-0.471919447183609 0.7540037035942078 2.675781726837158 227 191 182
-0.47216159105300903 0.7435473203659058 2.687502861022949 160 146 111
-0.47316697239875793 0.7535008192062378 2.6736807823181152 204 162 152
-0.4701746106147766 0.7572295069694519 2.6923580169677734 234 203 188
-0.49442172050476074 0.7660619020462036 2.6613364219665527 240 183 174
-0.46724411845207214 0.7503414750099182 2.690150737762451 203 196 192
-0.47099965810775757 0.7554070949554443 2.678755283355713 237 181 169
-0.47749096155166626 0.7557889223098755 2.6687886714935303 240 195 181
-0.46982935070991516 0.7445374727249146 2.6671440601348877 210 206 144
-0.474263995885849 0.7487796545028687 2.683690309524536 235 212 182
-0.4967164099216461 0.7696503400802612 2.6529769897460938 241 195 184
-0.4927755296230316 0.7668006420135498 2.651906967163086 241 191 178
-0.4980459213256836 0.7716370820999146 2.6533143520355225 241 195 181
-0.48012790083885193 0.7561494708061218 2.6545166969299316 197 130 98
-0.4841901957988739 0.7629567980766296 2.653324604034424 241 182 168
-0.4708733558654785 0.7539534568786621 2.6841533184051514 201 178 166
-0.47273311018943787 0.7558633685112 2.6808037757873535 229 174 162
-0.4734657108783722 0.7502163052558899 2.676619052886963 186 150 98
-0.4687784016132355 0.7434799075126648 2.693033218383789 230 223 211
-0.4695359170436859 0.7554578185081482 2.680272102355957 225 162 154
-0.472007155418396 0.7573619484901428 2.6890416145324707 234 180 170
-0.4906502664089203 0.747019350528717 2.650419235229492 223 217 159
-0.47753390669822693 0.7455781102180481 2.6577401161193848 221 219 150
-0.48444676399230957 0.7478312849998474 2.6531007289886475 240 234 183
-0.47597751021385193 0.7451876997947693 2.671297311782837 152 129 101
-0.4728286564350128 0.7507244348526001 2.67950439453125 216 198 168
-0.4695065915584564 0.7420868873596191 2.690460681915283 96 68 37
-0.4797065854072571 0.7553597092628479 2.6595101356506348 217 171 156
-0.4919648766517639 0.7639538049697876 2.653564453125 242 194 181
-0.48982489109039307 0.7637131810188293 2.6508233547210693 241 192 177
-0.4727836847305298 0.7454174160957336 2.6929259300231934 132 113 86
-0.4806644320487976 0.7507147789001465 2.661566734313965 251 233 204
-0.482357919216156 0.7514642477035522 2.6554577350616455 251 233 203
-0.47297027707099915 0.7469570636749268 2.6683359146118164 231 221 188
-0.48819106817245483 0.7446780204772949 2.6539862155914307 167 141 66
-0.47369104623794556 0.7428287863731384 2.662134885787964 203 198 193
-0.47224196791648865 0.7482223510742188 2.687912702560425 229 198 168
-0.46927523612976074 0.7555007934570312 2.682363748550415 230 186 179
-0.49319177865982056 0.7655014395713806 2.6541106700897217 240 189 175
-0.4758744239807129 0.7429984211921692 2.673029661178589 54 44 15
-0.4834572672843933 0.7549528479576111 2.652689218521118 223 176 135
-0.4761620759963989 0.743651270866394 2.6605842113494873 126 114 70
-0.4781172275543213 0.7523232698440552 2.662278890609741 238 187 144
-0.4689442813396454 0.746529221534729 2.6659302711486816 162 138 176
-0.47071757912635803 0.7461515069007874 2.670976161956787 217 210 178
-0.48018041253089905 0.7241814136505127 2.6689231395721436 130 135 138
-0.47399649024009705 0.7394477725028992 2.659904718399048 203 203 196
-0.4713371694087982 0.7427822947502136 2.669635057449341 198 201 206
-0.4942402243614197 0.7661980390548706 2.656564712524414 243 203 190
-0.4669122099876404 0.7543635368347168 2.679046630859375 227 188 176
-0.47632044553756714 0.7572333216667175 2.685685634613037 245 213 201
-0.47374263405799866 0.7613073587417603 2.6993777751922607 138 96 64
-0.4873407185077667 0.7596999406814575 2.6600887775421143 241 185 172
-0.47299349308013916 0.7462214231491089 2.66467022895813 153 126 105
-0.4733348786830902 0.7569411396980286 2.6914117336273193 244 214 200
-0.4762464463710785 0.7508394718170166 2.6646265983581543 251 233 219
-0.4718612730503082 0.7410407066345215 2.6839749813079834 217 207 165
-0.47050854563713074 0.7518182396888733 2.676642656326294 131 88 59
-0.4753156304359436 0.7526689767837524 2.666598081588745 221 167 136
-0.4841117262840271 0.7612301707267761 2.6560423374176025 239 184 172
-0.48848190903663635 0.7613784670829773 2.655662775039673 239 177 164
-0.47734713554382324 0.7470089793205261 2.662787914276123 126 125 88
-0.4687078893184662 0.7502907514572144 2.688634157180786 167 107 69
-0.4737407863140106 0.7455041408538818 2.6625821590423584 115 107 76
-0.48102203011512756 0.7587597370147705 2.6521658897399902 178 125 115
-0.4903542995452881 0.7441830039024353 2.653061628341675 236 226 172
-0.47133198380470276 0.7401525378227234 2.6716718673706055 67 51 30
-0.4919382631778717 0.7644672393798828 2.6572344303131104 241 192 179
-0.46873030066490173 0.7506478428840637 2.6839542388916016 167 116 74
-0.47994139790534973 0.7462201714515686 2.658381223678589 179 174 181
-0.4837612509727478 0.7463214993476868 2.655029773712158 219 207 191
-0.48351603746414185 0.7581781148910522 2.6587934494018555 241 188 174
-0.48145022988319397 0.7564825415611267 2.661546230316162 241 196 184
-0.4713987112045288 0.7443519234657288 2.694262742996216 114 97 68
-0.4686765670776367 0.7499246001243591 2.692817211151123 95 73 37
-0.489780455827713 0.7642083764076233 2.6534996032714844 240 190 175
-0.4685145318508148 0.7519457340240479 2.6818461418151855 95 57 29
-0.47536078095436096 0.7550055384635925 2.6727187633514404 228 178 165
-0.4699588119983673 0.750010073184967 2.6865289211273193 136 101 65
-0.48831722140312195 0.7415387630462646 2.6526496410369873 203 207 127
-0.4702606797218323 0.7418139576911926 2.688364267349243 115 95 76
-0.4729588031768799 0.7500982880592346 2.681800365447998 210 168 124
-0.4886656105518341 0.7403887510299683 2.6508748531341553 193 208 135
-0.4672131836414337 0.7511845827102661 2.687650203704834 111 66 33
-0.493950217962265 0.7648987770080566 2.65818452835083 240 192 178
-0.48679009079933167 0.762495756149292 2.654578924179077 240 173 159
-0.4744611382484436 0.7481430768966675 2.661625862121582 205 203 176
-0.47602134943008423 0.7303729057312012 2.675645112991333 191 196 203
-0.49130356311798096 0.7246574759483337 2.6678199768066406 110 114 120
-0.4863157570362091 0.7469075322151184 2.6527857780456543 218 191 130
-0.4718805253505707 0.7587510943412781 2.691901683807373 236 186 174
-0.47071972489356995 0.7501814961433411 2.6844241619110107 197 153 114
-0.4739581346511841 0.7589278817176819 2.6911652088165283 238 185 172
-0.4721508026123047 0.7570837140083313 2.6861608028411865 231 181 159
-0.4811915159225464 0.747032105922699 2.655261754989624 186 174 133
-0.4731685221195221 0.7427980899810791 2.671988010406494 71 57 40
-0.46932730078697205 0.758822500705719 2.693636417388916 239 197 189
-0.47292524576187134 0.7451613545417786 2.667375326156616 224 212 191
-0.488381564617157 0.7650969624519348 2.652315378189087 243 196 186
-0.4866599440574646 0.7631219029426575 2.652282953262329 240 184 168
-0.4876984655857086 0.7603091597557068 2.657287359237671 240 183 168
-0.4789634943008423 0.7552065253257751 2.6626083850860596 224 176 164
-0.47221049666404724 0.7597571611404419 2.698439598083496 152 109 75
-0.4726134240627289 0.7293020486831665 2.675029754638672 170 178 197
-0.46991243958473206 0.7435047626495361 2.6952993869781494 105 90 62
-0.48057353496551514 0.7482159733772278 2.6586315631866455 245 236 226
-0.48124459385871887 0.7579061985015869 2.6542656421661377 215 159 143
-0.4854900538921356 0.725892961025238 2.669691324234009 139 124 49
-0.4917406737804413 0.7629405856132507 2.658658027648926 242 195 183
-0.48056328296661377 0.7555259466171265 2.6572048664093018 215 166 148
-0.4760464131832123 0.7525908350944519 2.6630070209503174 180 105 89
-0.4711787700653076 0.7461072206497192 2.668980121612549 205 194 168
-0.4844532907009125 0.7596358060836792 2.65427565574646 239 179 167
-0.4830533266067505 0.7564833760261536 2.6509783267974854 205 158 123
-0.46980926394462585 0.7403615713119507 2.6697068214416504 74 54 47
-0.4894183576107025 0.7474349141120911 2.647848606109619 147 142 42
-0.4782203137874603 0.7545125484466553 2.6605465412139893 244 208 187
-0.4717336595058441 0.7464930415153503 2.666278600692749 116 101 67
-0.6361258029937744 0.8514020442962646 2.621135711669922 194 161 136
-0.6374822854995728 0.8500325679779053 2.6203413009643555 133 104 62
-0.6338443160057068 0.8510043621063232 2.6217806339263916 241 204 191
-0.6341842412948608 0.8515953421592712 2.617985486984253 169 139 105
-0.6330372095108032 0.852972686290741 2.619372606277466 182 178 133
-0.6363213062286377 0.8533639311790466 2.6192071437835693 187 176 130
-0.5022730827331543 0.7832850217819214 2.685338258743286 248 234 230
-0.5050210952758789 0.7823437452316284 2.6728780269622803 249 236 232
-0.5008193850517273 0.7834614515304565 2.6816823482513428 250 239 235
-0.4958583414554596 0.7816815376281738 2.689459800720215 249 235 231
-0.5033043622970581 0.7823299169540405 2.682652711868286 250 240 235
-0.49498409032821655 0.7821655869483948 2.678927421569824 250 235 230
-0.49540257453918457 0.7809719443321228 2.6867964267730713 253 243 238
-0.5043238401412964 0.7828935980796814 2.6779510974884033 249 233 230
-0.49948662519454956 0.7817932963371277 2.686509370803833 251 236 234
-0.5029235482215881 0.7825839519500732 2.6721158027648926 247 229 224
-0.49887967109680176 0.7825509905815125 2.6908810138702393 247 225 221
-0.5008467435836792 0.781314492225647 2.6738665103912354 248 231 225
-0.5031657814979553 0.7846970558166504 2.6783363819122314 249 237 233
-0.497416615486145 0.780968189239502 2.6882517337799072 247 227 225
-0.49590736627578735 0.7815251350402832 2.68110990524292 250 239 235
-0.503156304359436 0.7823969721794128 2.6742029190063477 250 239 235
-0.5041751265525818 0.7806697487831116 2.6658644676208496 246 222 213
-0.5012275576591492 0.7810604572296143 2.684403657913208 251 239 235
-0.5020922422409058 0.7817876935005188 2.6764206886291504 251 241 237
-0.49762171506881714 0.781305730342865 2.6826741695404053 251 240 236
-0.5012036561965942 0.7830164432525635 2.670050621032715 249 233 228
-0.5031459927558899 0.7811896204948425 2.669055223464966 246 225 219
-0.5001621842384338 0.7833049893379211 2.672748565673828 249 234 231
-0.49503496289253235 0.7809054255485535 2.682926654815674 250 239 235
-0.4988184869289398 0.7826038002967834 2.6817338466644287 252 241 237
-0.5020614266395569 0.7831715941429138 2.6790802478790283 250 241 236
-0.5023532509803772 0.7833670973777771 2.689809560775757 246 219 215
-0.5020728707313538 0.8521236181259155 2.7763452529907227 115 106 76
-0.5039342641830444 0.8518481850624084 2.7750244140625 102 89 61
-0.5221889615058899 0.8437749743461609 2.774348258972168 139 114 90
-0.5214663147926331 0.8449549078941345 2.777421712875366 148 125 108
-0.5244356393814087 0.8430435061454773 2.772730588912964 134 111 84
-0.5248122811317444 0.8391947150230408 2.7693145275115967 192 152 118
-0.520468533039093 0.841916561126709 2.768646478652954 134 114 84
-0.5146697163581848 0.8480818271636963 2.7726142406463623 121 107 78
-0.5137857794761658 0.846138060092926 2.7749526500701904 123 106 78
-0.5121828317642212 0.8462649583816528 2.7685163021087646 110 94 60
-0.5184403657913208 0.8437466025352478 2.7816741466522217 157 125 112
-0.5128467679023743 0.8463249802589417 2.7722816467285156 122 106 75
-0.5192741751670837 0.8418056964874268 2.7855722904205322 174 135 129
-0.5187053084373474 0.8468852639198303 2.7713706493377686 109 94 66
-0.5150402188301086 0.8421551585197449 2.7650606632232666 127 105 68
-0.5223369002342224 0.8431670665740967 2.7776377201080322 159 138 122
-0.5059656500816345 0.8501125574111938 2.7789969444274902 112 97 73
-0.5252244472503662 0.8393068313598633 2.7756683826446533 159 121 104
-0.5208998918533325 0.8432451486587524 2.7806448936462402 160 134 125
-0.5208972096443176 0.8413894772529602 2.776503086090088 161 129 106
-0.5208690762519836 0.8401638269424438 2.7703616619110107 138 110 84
-0.5196012854576111 0.8439265489578247 2.7684261798858643 118 101 71
-0.5092470049858093 0.8486481308937073 2.7746896743774414 111 95 65
-0.5051483511924744 0.8514143228530884 2.776601552963257 110 96 73
-0.514604389667511 0.8454937934875488 2.776838779449463 139 118 93
-0.5202791094779968 0.8420324921607971 2.7747128009796143 156 129 103
-0.5150265097618103 0.8451908230781555 2.772859811782837 127 108 75
-0.5220052003860474 0.8397534489631653 2.773132801055908 148 116 94
-0.5170392394065857 0.8445296883583069 2.774824380874634 133 112 86
-0.5051219463348389 0.848544180393219 2.77764892578125 110 95 65
-0.5067039132118225 0.848845362663269 2.771251678466797 103 86 55
-0.5223134756088257 0.8428211212158203 2.7709829807281494 130 108 82
-0.5204428434371948 0.8418781161308289 2.7784907817840576 165 132 114
-0.5099162459373474 0.8474134802818298 2.7686352729797363 108 94 59
-0.5233018398284912 0.8396350145339966 2.7678420543670654 139 114 84
-0.5083343982696533 0.8517052531242371 2.7709710597991943 102 89 58
-0.5107626914978027 0.8469131588935852 2.7663426399230957 106 92 57
-0.5065626502037048 0.8538220524787903 2.7757365703582764 105 93 67
-0.5201183557510376 0.840658962726593 2.772454023361206 144 117 89
-0.516831636428833 0.8469293713569641 2.7721989154815674 111 95 69
-0.5109876394271851 0.8507581353187561 2.7700459957122803 102 89 56
-0.5177921652793884 0.8441401124000549 2.77839732170105 169 144 122
-0.5228074789047241 0.8408299684524536 2.783836603164673 156 101 97
-0.5212758183479309 0.8410298228263855 2.78137469291687 166 125 115
-0.518341064453125 0.8429888486862183 2.7767183780670166 153 128 105
-0.5063751339912415 0.8524211049079895 2.7719874382019043 99 88 57
-0.5258772373199463 0.8392521142959595 2.773271322250366 152 117 96
-0.509990930557251 0.8477086424827576 2.7726056575775146 112 95 64
-0.5175904035568237 0.8475360870361328 2.7695891857147217 105 90 59
-0.5078942775726318 0.8473970293998718 2.778017997741699 123 100 77
-0.5199359059333801 0.8417600989341736 2.783672332763672 174 139 135
-0.5150308609008789 0.8489132523536682 2.769808530807495 102 88 56
-0.5228741765022278 0.8401510119438171 2.771320104598999 152 123 94
-0.5161706805229187 0.8414170145988464 2.7621705532073975 130 107 66
-0.5136244893074036 0.8509909510612488 2.7727785110473633 103 88 59
-0.5188144445419312 0.8426350951194763 2.770054817199707 134 114 89
-0.5071987509727478 0.8498136401176453 2.7758982181549072 118 104 76
-0.5253521203994751 0.8419587016105652 2.774921417236328 159 131 106
-0.5189957618713379 0.8458825349807739 2.777448892593384 139 119 104
-0.519726037979126 0.8440542817115784 2.775381565093994 147 123 99
-0.5116139054298401 0.8472924828529358 2.7635364532470703 103 93 52
-0.5116238594055176 0.8472905158996582 2.7753679752349854 114 97 67
-0.5125947594642639 0.8452954888343811 2.764549732208252 107 92 56
-0.515038788318634 0.8409569263458252 2.7604095935821533 110 94 51
-0.5152800679206848 0.8475462794303894 2.7682383060455322 101 88 54
-0.5072397589683533 0.8490962386131287 2.773226022720337 114 97 65
-0.5199515223503113 0.8457249402999878 2.7697789669036865 115 99 69
-0.5094569325447083 0.8504061102867126 2.773758888244629 116 102 71
-0.5126794576644897 0.8496408462524414 2.771129846572876 103 88 57
-0.5157302618026733 0.8444167971611023 2.7796223163604736 150 124 106
-0.5072895288467407 0.8517715930938721 2.7736730575561523 102 89 58
-0.520856499671936 0.8433161377906799 2.772491455078125 131 111 86
-0.5105547308921814 0.8481035828590393 2.7704007625579834 144 141 88
-0.512637197971344 0.845776379108429 2.766528606414795 107 93 58
-0.5250803232192993 0.8418869972229004 2.7708511352539062 135 109 84
-0.5078487992286682 0.8479032516479492 2.7693593502044678 107 91 57
-0.5154300332069397 0.8459622859954834 2.7668728828430176 106 93 59
-0.52241051197052 0.8394212126731873 2.7794950008392334 213 167 154
-0.5235758423805237 0.8398122787475586 2.7775776386260986 163 119 110
-0.5208421945571899 0.8400087952613831 2.7858755588531494 163 110 107
-0.5128282308578491 0.8434749841690063 2.76249098777771 109 94 52
-0.519088864326477 0.8440216183662415 2.773106813430786 135 111 80
-0.5209876894950867 0.842678964138031 2.7861220836639404 171 142 139
-0.5231524109840393 0.8394577503204346 2.7820661067962646 196 137 121
-0.5113319158554077 0.8510194420814514 2.772421360015869 101 87 57
-0.5357467532157898 0.8261245489120483 2.780792474746704 202 128 124
-0.5296627879142761 0.8364631533622742 2.7818052768707275 181 131 124
-0.5224092602729797 0.785770833492279 2.787539482116699 239 187 184
-0.5375617742538452 0.8233959674835205 2.779020309448242 222 150 146
-0.5352336764335632 0.8074348568916321 2.7795538902282715 242 191 185
-0.5378803610801697 0.8191536068916321 2.778296947479248 227 147 142
-0.5271720290184021 0.8282087445259094 2.7662923336029053 174 121 102
-0.5286304354667664 0.7924128770828247 2.779252290725708 237 153 147
-0.5354856848716736 0.803999125957489 2.7743430137634277 243 203 196
-0.5343343019485474 0.8222000002861023 2.7718420028686523 217 154 144
-0.5234165191650391 0.8351717591285706 2.7670271396636963 170 133 106
-0.5303518176078796 0.8342706561088562 2.7720894813537598 161 112 94
-0.5299811959266663 0.794640064239502 2.780579090118408 239 169 163
-0.5279359221458435 0.8353695869445801 2.769428014755249 153 112 90
-0.521556556224823 0.7836524844169617 2.780534267425537 237 156 149
-0.5195557475090027 0.7833356261253357 2.7857460975646973 238 179 174
-0.5247945785522461 0.7867242693901062 2.7810163497924805 237 147 145
-0.5259478092193604 0.7959421873092651 2.7874879837036133 237 159 156
-0.5319932699203491 0.8281870484352112 2.769089460372925 194 142 125
-0.5349615216255188 0.8185955882072449 2.7936713695526123 233 146 144
-0.5354871153831482 0.8051973581314087 2.778994083404541 246 218 210
-0.5255233645439148 0.8281733989715576 2.7630414962768555 223 184 150
-0.5276091694831848 0.8134989142417908 2.764665365219116 243 219 196
-0.5341933965682983 0.812305212020874 2.789525270462036 246 214 180
-0.5241323709487915 0.8380126953125 2.776904821395874 221 181 164
-0.5346943140029907 0.8108861446380615 2.7853665351867676 239 176 170
-0.5319216251373291 0.8313699960708618 2.7847416400909424 187 105 94
-0.5218989253044128 0.8384236097335815 2.785189628601074 181 125 118
-0.530816912651062 0.799699604511261 2.778383255004883 240 185 179
-0.5223557949066162 0.7857160568237305 2.7845585346221924 237 159 153
-0.5301935076713562 0.7931199669837952 2.782691240310669 240 168 161
-0.5289406180381775 0.7943767309188843 2.7894515991210938 239 163 158
-0.5298559665679932 0.7972274422645569 2.788090229034424 239 163 157
-0.5353807210922241 0.8198205828666687 2.788172960281372 226 135 135
-0.5265231132507324 0.789684534072876 2.786200523376465 238 163 156
-0.5255100131034851 0.8328315019607544 2.7863214015960693 177 87 71
-0.5281694531440735 0.8300378322601318 2.7817513942718506 187 115 108
-0.528772234916687 0.8262261748313904 2.7685868740081787 213 158 141
-0.5319926142692566 0.8012980222702026 2.781613826751709 239 185 181
-0.5240998864173889 0.8375298976898193 2.786757469177246 178 125 121
-0.5318423509597778 0.7977482676506042 2.7818806171417236 239 175 170
-0.5240424871444702 0.7860211730003357 2.7784576416015625 235 142 140
-0.5234151482582092 0.7854457497596741 2.7828543186187744 235 151 147
-0.5340420007705688 0.8082257509231567 2.773297071456909 228 144 141
-0.5333777666091919 0.8110085129737854 2.766993999481201 238 188 173
-0.5328871011734009 0.8095828294754028 2.785522222518921 239 165 162
-0.5353693962097168 0.8230895400047302 2.784633159637451 218 137 138
-0.5333184003829956 0.8103706240653992 2.792360544204712 238 164 159
-0.5238499641418457 0.8315998911857605 2.766587734222412 189 150 119
-0.5335277318954468 0.8263315558433533 2.7900750637054443 204 111 104
-0.5340399742126465 0.8216435313224792 2.7894558906555176 220 131 133
-0.5357450842857361 0.8242577910423279 2.787985324859619 209 114 113
-0.537255585193634 0.8198930621147156 2.781675100326538 227 154 149
-0.5351051092147827 0.8303460478782654 2.780129909515381 188 125 118
-0.5323651432991028 0.8359004259109497 2.7776906490325928 193 127 109
-0.5368691086769104 0.8077907562255859 2.776137590408325 237 162 158
-0.536124050617218 0.8206422924995422 2.77323055267334 214 144 137
-0.5315433740615845 0.8329389691352844 2.773186206817627 171 123 111
-0.5337634086608887 0.8286687731742859 2.7844600677490234 194 114 111
-0.534476637840271 0.8216774463653564 2.7916347980499268 226 143 144
-0.5280863642692566 0.7905193567276001 2.7726352214813232 233 138 134
-0.5240474343299866 0.7879824042320251 2.788264751434326 240 179 173
-0.5251535177230835 0.8328797221183777 2.7886135578155518 175 84 71
-0.5361013412475586 0.8231280446052551 2.7753725051879883 217 148 143
-0.5347564220428467 0.8013510704040527 2.7748024463653564 238 166 160
-0.5247562527656555 0.8343137502670288 2.781733989715576 232 171 152
-0.5234336256980896 0.8368234634399414 2.7721667289733887 155 109 88
-0.5302125215530396 0.8342191576957703 2.7811408042907715 232 163 150
-0.5277954936027527 0.8103179931640625 2.761141061782837 245 223 207
-0.527599036693573 0.8378435969352722 2.770681381225586 140 99 77
-0.5262179374694824 0.8346983194351196 2.779712200164795 177 109 94
-0.5295310616493225 0.8103389739990234 2.7636947631835938 240 172 157
-0.5355827212333679 0.8170931339263916 2.785137176513672 234 151 150
-0.527767539024353 0.7940931916236877 2.7852025032043457 242 187 178
-0.5372844338417053 0.8194851875305176 2.783670663833618 228 149 148
-0.5324100852012634 0.8251267075538635 2.784151554107666 215 149 144
-0.5292850136756897 0.8237013816833496 2.7886085510253906 213 128 126
-0.5369731187820435 0.8174046874046326 2.7791409492492676 236 172 167
-0.5365841388702393 0.8125048279762268 2.7783429622650146 239 170 166
